-0.980735397223 1.99005257913 -3.1476659532
-0.931055116508 0.570599386176 -3.43489423438
0.436458982125 0.149145742934 -3.70209243575
1.27679498531 1.39095642629 -3.59836282169
0.376737920791 2.56261151222 -3.21543975854
2.96743359626 0.098039681621 -2.20643198021
3.54175631489 -0.0180111928655 -0.844346949758
2.29976186413 -1.17044293529 -2.58917813627
2.61366341302 -2.0911583046 -1.48058970521
3.39510130147 -1.41280110484 -0.451687022938
-1.97273471551 2.51300515516 -2.20206079698
-2.95354875106 1.55796283762 -1.65224914461
-1.94479371666 -0.3538521659 -2.94573949218
-2.95732599249 0.146463055439 -2.02475104285
-2.39132693252 -2.04078618148 -1.33223783382
-1.76720554222 -2.71167961447 -0.216710112024
-3.20691068545 -0.872411085518 -1.00920150075
-3.43276348583 -0.510430363358 0.385210812921
-3.15773874745 -1.48195689055 1.43350816926
-2.34011995929 -2.64987548682 1.12026449853
0.279713822045 -3.09143846084 -1.59835388409
-0.61552012358 -3.53510642699 -0.507724929347
1.63001035641 -3.06896014898 -1.05192114794
1.6316682356 -3.56769852096 0.3122392083
0.241559662077 -3.84941144338 0.630270561407
-1.48644498247 3.36735203518 -1.09036724349
-3.25704649373 1.92132067146 -0.281907708046
-2.37299400317 3.03827434693 0.0411141907907
-0.121953157816 -1.97943503843 -2.43853514206
-1.55590824044 -1.70421893344 -2.51802180343
2.2321272679 1.30799801195 -2.50133997085
2.09150906701 2.38199585838 -1.55614995879
2.47172103391 2.17612214721 -0.170198679225
3.22422388232 0.98322214075 0.177876959252
0.876946878431 -1.0456179469 -2.96605294749
0.873998609062 3.11393195949 -1.89805651032
-0.063383296923 3.25184085291 -0.796617176942
0.449979441896 3.4588264678 0.548573776931
1.75807402652 2.89034903037 0.868220110893
-3.46101240578 0.897115807931 0.732472380894
2.41606476273 -2.88747048807 1.32686266654
3.24401408052 -1.75865749144 0.951273501601
-1.8830930749 3.15368859681 1.39296283571
-0.503765019295 3.51489711961 1.64317765225
-3.40366082089 1.31047618167 2.11389819585
-2.65156437177 2.51214963898 2.43727751942
-3.37688982324 -1.09152815548 2.81748775144
-3.5430786906 0.312076099858 3.15098638494
-1.57844744355 -3.22272316011 2.22551663488
-2.95753441328 -1.97039479623 3.88787507522
-1.98630131672 -3.00085915727 3.59575608502
-0.236885170628 -3.71489999916 1.98295898253
2.08103148684 -3.13378731923 2.70993568116
0.756018801871 -3.6415171015 3.03323519476
3.54829825073 -0.757875870713 1.95332960926
2.77682895088 -2.37407767501 3.72534254074
3.43012825687 -1.13401407365 3.34989988809
3.45957329919 0.64566398337 1.56981572564
2.15688844198 2.6750194234 2.24822353372
3.06082154326 1.58968430741 2.59452140826
-0.0408142471465 3.53749818581 3.01011719998
1.335943866 3.21593515514 3.30650983504
-2.27431170419 2.76697160275 3.79888931349
-1.01223995271 3.41038456503 4.07830115365
-3.5041919883 0.75099770727 4.52976975375
-2.93646391167 2.04131560235 4.85184885422
-3.19814921507 -1.58690177254 5.26442234957
-3.56194514534 -0.225530090265 5.58705349573
-1.10282933136 -3.41539675423 4.67154919094
-2.64898052109 -2.38950233825 6.32992789015
-1.51521092903 -3.23328435219 6.04028583039
0.302188097515 -3.61401779578 4.39576681404
2.46708338781 -2.63842915429 5.11146648452
1.26337776739 -3.36497268871 5.44359573302
3.56503231545 -0.117974257376 4.36632405575
3.06964810264 -1.82488189747 6.13995697694
3.53445990675 -0.508539653894 5.76431863778
3.29376105218 1.25332748192 3.98723643998
1.74215021595 3.05263572385 4.68336519592
2.80462032119 2.13439318497 5.02129061855
-0.574341266877 3.50491683441 5.44579853609
0.836423784177 3.4482404914 5.7361630929
-2.64898052109 2.38950233825 6.22158557912
-1.51521092903 3.23328435219 6.51122763887
-3.56194514534 0.225530090265 6.96445997353
-3.19814921507 1.58690177254 7.28709111969
-2.93646391167 -2.04131560235 7.69966461504
-3.5041919883 -0.75099770727 8.02174371552
-0.574341266877 -3.50491683441 7.10571493317
-2.27431170419 -2.76697160275 8.75262415577
-1.01223995271 -3.41038456503 8.47321231561
0.836423784177 -3.4482404914 6.81535037636
2.80462032119 -2.13439318497 7.53022285072
1.74215021595 -3.05263572385 7.86814827335
3.53445990675 0.508539653894 6.78719483148
3.29376105218 -1.25332748192 8.56427702929
3.56503231545 0.117974257376 8.18518941351
3.06964810264 1.82488189747 6.41155649232
1.26337776739 3.36497268871 7.10791773624
2.46708338781 2.63842915429 7.44004698474
-1.10282933136 3.41539675423 7.87996427833
0.302188097515 3.61401779578 8.15574665522
-2.95753441328 1.97039479623 8.66363839405
-1.98630131672 3.00085915727 8.95575738425
-3.5430786906 -0.312076099858 9.40052708433
-3.37688982324 1.09152815548 9.73402571782
-2.65156437177 -2.51214963898 10.1142359498
-3.40366082089 -1.31047618167 10.4376152734
-0.0408142471465 -3.53749818581 9.54139626928
-1.8830930749 -3.15368859681 11.1585506336
-0.503765019295 -3.51489711961 10.908335817
1.335943866 -3.21593515514 9.24500363422
3.06082154326 -1.58968430741 9.956992061
2.15688844198 -2.6750194234 10.3032899355
3.43012825687 1.13401407365 9.20161358117
3.45957329919 -0.64566398337 10.9816977436
3.54829825073 0.757875870713 10.59818386
2.77682895088 2.37407767501 8.82617092852
0.756018801871 3.6415171015 9.5182782745
2.08103148684 3.13378731923 9.8415777881
-1.57844744355 3.22272316011 10.3259968344
-0.236885170628 3.71489999916 10.5685544867
-3.15773874745 1.48195689055 11.1180053
-2.34011995929 2.64987548682 11.4312489707
-3.46101240578 -0.897115807931 11.8190410884
-3.43276348583 0.510430363358 12.1663026563
-2.37299400317 -3.03827434693 12.5103992785
-3.25704649373 -1.92132067146 12.8334211773
0.449979441896 -3.4588264678 12.0029396923
-1.48644498247 -3.36735203518 13.6418807127
-0.063383296923 -3.25184085291 13.3481306462
1.75807402652 -2.89034903037 11.6832933584
3.22422388232 -0.98322214075 12.37363651
2.47172103391 -2.17612214721 12.7217121485
3.24401408052 1.75865749144 11.6002399677
3.54175631489 0.0180111928655 13.395860419
3.39510130147 1.41280110484 13.0032004922
2.41606476273 2.88747048807 11.2246508027
0.241559662077 3.84941144338 11.9212429079
1.6316682356 3.56769852096 12.239274261
-1.76720554222 2.71167961447 12.7682235813
-0.61552012358 3.53510642699 13.0592383986
-0.980735397223 -1.99005257913 15.6991794225
-0.931055116508 -0.570599386176 15.9864077036
0.436458982125 -0.149145742934 16.253605905
1.27679498531 -1.39095642629 16.1498762909
0.376737920791 -2.56261151222 15.7669532278
2.96743359626 -0.098039681621 14.7579454495
2.29976186413 1.17044293529 15.1406916055
2.61366341302 2.0911583046 14.0321031745
-1.97273471551 -2.51300515516 14.7535742662
-2.95354875106 -1.55796283762 14.2037626139
-1.94479371666 0.3538521659 15.4972529614
-2.95732599249 -0.146463055439 14.5762645121
-2.39132693252 2.04078618148 13.8837513031
-3.20691068545 0.872411085518 13.56071497
0.279713822045 3.09143846084 14.1498673534
1.63001035641 3.06896014898 13.6034346172
-0.121953157816 1.97943503843 14.9900486113
-1.55590824044 1.70421893344 15.0695352727
2.2321272679 -1.30799801195 15.0528534401
2.09150906701 -2.38199585838 14.1076634281
0.876946878431 1.0456179469 15.5175664168
0.873998609062 -3.11393195949 14.4495699796
